# .PCD v0.7 - Point Cloud Data file format
VERSION 0.7
FIELDS x y z rgb
SIZE 4 4 4 4
TYPE F F F F
COUNT 1 1 1 1
WIDTH 1050
HEIGHT 1
VIEWPOINT 0 0 0 1 0 0 0
POINTS 1050
DATA ascii
-1.6167097 1.2747231 1.0226457 1.0879083e-38
-1.5808884 1.2764727 1.0175837 1.1615926e-38
-1.5267657 1.2905822 1.0313988 1.189251e-38
0.93786687 1.2882305 1.0415099 1.4383244e-38
0.97050816 1.272841 1.0238622 1.3922625e-38
1.017773 1.2789272 1.0197085 1.5949492e-38
1.0938997 1.2861829 1.0248276 8.9440425e-39
1.1330327 1.2837822 1.0191857 1.1800668e-38
1.1725209 1.2733779 1.0273954 1.2906658e-38
1.2248342 1.2752811 1.0289918 1.8989054e-38
1.2705425 1.2679737 1.0357603 2.1293949e-38
-1.9180467 1.3052814 1.025883 9.3106698e-39
-1.8548765 1.3097386 1.0324351 9.6787321e-39
-1.82074 1.3119485 1.0396094 9.3103083e-39
-1.7705315 1.3037241 1.02232 9.9564022e-39
-1.726475 1.3126304 1.0269634 1.0510302e-38
-1.6813184 1.3315859 1.0230833 1.0234435e-38
-1.6053834 1.3154981 1.0282003 1.0048959e-38
-1.5795919 1.3183979 1.0209845 1.0048235e-38
-1.5054207 1.3255337 1.0225176 1.0787245e-38
-1.4765481 1.3215154 1.0340163 1.1616285e-38
-1.4223322 1.3382233 1.0239366 1.235349e-38
0.94103563 1.3243219 1.0287561 1.4659831e-38
0.96884131 1.3264762 1.0224373 1.40141e-38
1.0335909 1.3258355 1.0268126 1.5579981e-38
1.0779901 1.3311747 1.0241357 1.4010845e-38
1.127269 1.3278196 1.020617 1.0049312e-38
1.1731607 1.322044 1.0239614 1.3551672e-38
1.2156219 1.3175482 1.0368237 1.6960753e-38
1.2552359 1.3141658 1.0030446 1.6961111e-38
-1.6724758 1.3683207 1.0231779 1.2263102e-38
-1.6289675 1.370928 1.0296776 1.1525175e-38
-1.5717844 1.377196 1.0227596 1.0324822e-38
-1.5277026 1.3749487 1.018363 1.0141151e-38
-1.4285451 1.3542209 1.0189846 1.1431895e-38
-1.3768317 1.369054 1.0250801 1.1892873e-38
-1.3234339 1.38807 1.0355092 1.2077266e-38
0.93211681 1.372673 1.03268 1.4106654e-38
0.96961057 1.372463 1.0245636 1.4749856e-38
1.0297985 1.3755615 1.0354426 1.3275443e-38
1.0772513 1.3784629 1.0197822 9.7727256e-39
1.1191403 1.3722075 1.0251114 1.3642422e-38
1.1663567 1.3748766 1.0332159 1.8251129e-38
-1.6090798 1.429214 1.0059123 1.5213722e-38
-1.5747113 1.4122669 1.0193917 1.0323739e-38
-1.5270362 1.4097078 1.0254483 1.0418105e-38
-1.4758387 1.4228722 1.0193052 9.8652897e-39
-1.4244343 1.4407259 1.026783 1.0233711e-38
-1.3255548 1.40836 1.0066471 1.1340424e-38
-1.2736183 1.4140095 1.0304942 1.2169822e-38
-1.2242773 1.4387747 1.0255704 1.1985072e-38
-1.1614233 1.44115 1.0243627 9.587984e-39
-1.1223468 1.4377972 1.0250608 3.3190399e-39
-1.0901672 1.4411459 1.034595 2.7662276e-39
0.8968128 1.4230969 1.0262927 1.3184698e-38
0.92502028 1.420513 1.0214425 1.5027528e-38
0.97470254 1.4299988 1.0146836 1.2998136e-38
1.0334311 1.4309824 1.0250444 1.0417735e-38
1.0751792 1.4265631 1.022128 1.1799227e-38
1.1273301 1.418009 1.027653 1.5669286e-38
1.1604307 1.4188871 1.034842 1.4929198e-38
1.2041225 1.4237688 1.0460682 2.2765474e-38
-1.5823982 1.4742008 1.0027021 1.5211919e-38
-1.519201 1.4783136 1.0378736 1.4842773e-38
-1.4804051 1.4821944 1.0461837 1.4934609e-38
-1.4217758 1.4760282 1.0276554 1.0602856e-38
-1.3789337 1.4631717 1.0240219 1.0878358e-38
-1.331115 1.483017 1.0288099 1.2170179e-38
-1.2756026 1.4892811 1.0231029 1.1248943e-38
-1.2488104 1.493829 1.0035124 1.1802481e-38
-1.1836537 1.4741147 1.0228152 1.1985792e-38
-1.1268305 1.4725895 1.0317974 7.5604004e-39
-1.069695 1.4627866 1.0223845 2.766229e-39
-1.0184819 1.4803704 1.0189226 2.5821965e-39
-0.97439075 1.485415 1.017581 3.5045115e-39
-0.94455814 1.4880016 1.0186561 6.4680294e-40
0.88644749 1.4763764 1.0278505 1.4475797e-38
0.92304009 1.4702777 1.021384 1.4104489e-38
0.98355281 1.4763985 1.0218505 1.1522642e-38
1.0292419 1.4798064 1.022482 1.0140426e-38
1.0692459 1.4735931 1.0235869 1.2351319e-38
1.1269155 1.4717917 1.0291243 1.0598529e-38
1.1523302 1.4525468 1.0392115 1.8989414e-38
-1.4760062 1.5116242 1.0309608 1.5119363e-38
-1.4143583 1.5166496 1.0209349 1.2446407e-38
-1.379084 1.5218096 1.0119823 1.1339698e-38
-1.3204207 1.5262567 1.0284494 1.0418099e-38
-1.2731178 1.5224442 1.0175821 1.2538604e-38
-1.2245667 1.521275 1.0260762 1.2354573e-38
-1.1785793 1.5293034 1.0258263 1.1339698e-38
-1.1276834 1.5429333 1.0243796 1.004968e-38
-1.0734396 1.5355037 1.0159975 4.4253888e-39
-1.0246809 1.5232861 1.0284899 1.8446301e-39
-0.96127605 1.5170883 1.0284743 2.0297416e-39
-0.92065638 1.5207132 1.0282742 2.2141357e-39
-0.87334061 1.5373012 1.0208728 5.7179339e-39
-0.84378183 1.5387625 1.0268428 4.520111e-39
0.84421521 1.5422788 1.0208544 1.6503744e-38
0.87596881 1.5220165 1.0192084 1.4567274e-38
0.92077953 1.5278549 1.0219563 1.3550953e-38
0.97946405 1.5270252 1.0214673 1.1246056e-38
1.0241436 1.5234318 1.0231386 1.1153498e-38
1.0664217 1.5278611 1.0291631 1.1705231e-38
1.1142418 1.5213125 1.0333347 9.6765713e-39
1.15376 1.516185 1.0399591 7.9255774e-39
-1.3695548 1.5532209 1.0058683 1.5672894e-38
-1.3268162 1.5599643 1.0438309 1.5581057e-38
-1.2704028 1.56955 1.0335029 1.1801397e-38
-1.217939 1.5689195 1.0227275 1.0879083e-38
-1.1705992 1.5733501 1.0271356 1.2446767e-38
-1.1140511 1.5678515 1.0173743 1.1432254e-38
-1.0740423 1.568915 1.0258034 6.3622159e-39
-1.0247502 1.5745749 1.0217702 5.4399023e-39
-0.97916019 1.5769076 1.0280539 3.4126802e-39
-0.92130589 1.588131 1.0234567 4.0587699e-39
-0.87556291 1.5797695 1.0376139 1.8457119e-39
-0.82981461 1.580004 1.0256007 5.9934362e-39
0.84075284 1.5897812 1.0339092 1.4567633e-38
0.87724227 1.5685499 1.0252986 1.4474717e-38
0.92411447 1.5782558 1.0243675 1.2168376e-38
0.97477472 1.5761592 1.0224872 1.1245695e-38
1.0198336 1.5788087 1.0216049 8.9408041e-39
1.0746971 1.5724798 1.0256712 9.3088691e-39
1.1079239 1.5646656 1.0484626 6.358246e-39
-1.2524562 1.6135986 1.0490001 1.5949843e-38
-1.2343202 1.6113666 1.022683 1.6134235e-38
-1.186033 1.6124189 1.0129212 1.6226429e-38
-1.1191534 1.6086988 1.0258737 1.1432258e-38
-1.0636494 1.6187234 1.0095549 7.8369887e-39
-1.0296568 1.6198238 1.0099157 5.5335413e-39
-0.96636742 1.6200039 1.0183892 4.7034177e-39
-0.92018753 1.6193447 1.0216242 5.3495129e-39
-0.87466556 1.615917 1.0201137 4.3357183e-39
-0.82333624 1.6205106 1.0238639 6.9157526e-39
-0.78390431 1.6330657 1.0263188 1.0509937e-38
-0.7245844 1.6390032 1.0321424 1.3366556e-38
0.83522701 1.6252099 1.0247054 1.3553121e-38
0.87313765 1.6219 1.023392 1.4013378e-38
0.92847127 1.627239 1.0226378 1.0970193e-38
0.97645748 1.6238341 1.0226705 1.2258769e-38
1.0157707 1.6249037 1.0188401 1.0599967e-38
1.0695493 1.6159927 1.0294219 8.2018013e-39
1.1051903 1.6248455 1.0297004 1.3086717e-38
-0.93348235 1.6556193 1.016001 2.4006947e-39
-0.871705 1.6801674 1.0075576 5.5342727e-39
-0.8202135 1.6614578 1.0238156 9.8645695e-39
-0.77481771 1.6717087 1.0260253 1.2076177e-38
-0.72627527 1.6816915 1.0271043 1.3920091e-38
-0.67326087 1.6807934 1.0174316 1.484241e-38
-0.63081121 1.6852854 1.0166205 1.4104124e-38
0.7922799 1.6990732 1.0242875 1.0142234e-38
0.82590222 1.6770941 1.0293956 1.4197408e-38
0.88181812 1.6761552 1.0207165 1.2075825e-38
0.923702 1.6738209 1.0240155 1.2075458e-38
0.9737922 1.6773771 1.0214256 1.15212e-38
1.0155427 1.6734251 1.0288594 8.2947186e-39
1.0619671 1.65379 1.0376129 7.3716861e-39
-0.8638218 1.716521 1.0190923 7.2870673e-39
-0.826083 1.7120205 1.0077028 1.134187e-38
-0.77804321 1.7115089 1.0187782 1.3089969e-38
-0.72393668 1.7154001 1.024328 1.2721184e-38
-0.67208272 1.7167795 1.0234241 1.3458751e-38
-0.62329328 1.7251676 1.0237756 1.4104482e-38
-0.57420939 1.7299523 1.0187006 1.3458751e-38
-0.52418524 1.7384422 1.0217487 1.3182888e-38
-0.48656344 1.7432947 1.0152756 1.1430446e-38
0.78508878 1.7201345 1.0195682 1.2630441e-38
0.82905942 1.7256888 1.0295857 1.2721192e-38
0.88225603 1.7284249 1.0243026 1.1983264e-38
0.92183334 1.7231654 1.0207007 1.3181083e-38
0.96799403 1.7251729 1.0246294 9.2170322e-39
1.0217772 1.7306029 1.0323809 8.6627767e-39
-0.70285857 1.7664781 1.0450413 1.3826445e-38
-0.66736156 1.7725286 1.0258501 1.3917919e-38
-0.62019265 1.7731234 1.0196273 1.2904853e-38
-0.57470757 1.7690467 1.0239613 1.2996687e-38
-0.52503026 1.7691842 1.0162433 1.2259484e-38
-0.47944474 1.7794405 1.0258543 1.1983258e-38
-0.42758691 1.7848456 1.0182004 1.1337889e-38
-0.38111404 1.7914364 1.0159028 1.0785077e-38
0.78432482 1.7608327 1.019565 1.1707758e-38
0.83653581 1.7791897 1.0274428 1.3366559e-38
0.87538439 1.7765613 1.0274704 1.2997053e-38
0.92123783 1.7705108 1.0221816 1.1153499e-38
0.96663487 1.7779158 1.0232362 9.9542371e-39
1.0178627 1.7820625 1.0394411 8.7567772e-39
-0.65100557 1.8005326 1.0088125 1.2632247e-38
-0.61547589 1.8191247 1.0196028 1.3827172e-38
-0.57085222 1.8198434 1.0335358 1.4287789e-38
-0.52013373 1.8294822 1.0341154 1.3089606e-38
-0.4647589 1.8219537 1.0202361 1.2443514e-38
-0.41956112 1.8210015 1.0237298 1.2075093e-38
-0.37768203 1.8215206 1.018212 1.1614475e-38
-0.32504541 1.8329321 1.0225977 1.1430808e-38
-0.28571716 1.8348516 1.023494 1.0878356e-38
-0.2220701 1.8420652 1.0238079 1.0048958e-38
-0.17184985 1.845551 1.0373611 9.7720095e-39
0.78409547 1.8373092 1.0285258 1.2719742e-38
0.8309744 1.8222919 1.0251426 1.4196319e-38
0.87493896 1.824103 1.0240294 1.2719743e-38
0.92008871 1.8232331 1.0206414 8.1096029e-39
0.95781326 1.8143557 1.0258114 7.0039784e-39
1.0050426 1.8428757 1.0205545 1.4840604e-38
-0.57156694 1.8506697 1.047846 1.3827175e-38
-0.51856333 1.8620638 1.0216379 1.3182166e-38
-0.47013077 1.8669603 1.0230412 1.4011925e-38
-0.42397925 1.8762378 1.0213208 1.2904853e-38
-0.37116116 1.8764637 1.0216376 1.2259122e-38
-0.32066858 1.8735201 1.0266293 1.1890701e-38
-0.27108729 1.8710264 1.0270927 1.2168011e-38
-0.22731653 1.8755502 1.0203869 1.1246416e-38
-0.17854755 1.8826956 1.0218142 1.207726e-38
-0.13012454 1.8733152 1.0284226 1.0325545e-38
-0.082901672 1.8922094 1.0370126 9.0348032e-39
-0.016889542 1.8965137 1.030412 8.9418887e-39
0.78443944 1.8813031 1.0274913 1.4104124e-38
0.82441312 1.8723226 1.0212163 1.3365474e-38
0.86856329 1.8693752 1.0248752 1.1152415e-38
0.91032511 1.8673501 1.0149336 8.7556926e-39
1.0178195 1.8722357 1.0177797 1.2904497e-38
-0.47851422 1.9010316 1.0487049 1.3275086e-38
-0.42325878 1.909072 1.0321581 1.3920454e-38
-0.36711213 1.9249102 1.0261263 1.3827897e-38
-0.32725021 1.9232793 1.0290269 1.3274359e-38
-0.26641455 1.9183614 1.0235074 1.1614477e-38
-0.22180246 1.9272443 1.0253863 1.1060942e-38
-0.17676936 1.9183946 1.0244255 1.170667e-38
-0.12214488 1.9231577 1.0303767 1.1798867e-38
-0.074450001 1.928617 1.0254472 1.2260207e-38
-0.023790214 1.9389738 1.0215836 1.1707759e-38
0.030896194 1.9335823 1.0241015 1.041774e-38
0.068581641 1.9371158 1.0138443 8.573825e-39
0.7855947 1.9269141 1.0216033 1.2165482e-38
0.82454056 1.9228915 1.0249197 1.1797421e-38
0.86980039 1.9234498 1.0259264 9.2155875e-39
0.99665672 1.9347649 1.0018631 1.0046789e-38
1.0222113 1.920813 1.0248153 1.2812297e-38
1.0606908 1.930469 1.005918 1.5210111e-38
-0.32075992 1.9578842 1.0404729 1.345948e-38
-0.27489921 1.975557 1.0280575 1.355095e-38
-0.22671299 1.969927 1.0157957 1.2998135e-38
-0.17379636 1.9727376 1.0222197 1.2721188e-38
-0.12500972 1.9815688 1.0212804 1.0877275e-38
-0.070172943 1.9764352 1.0212669 1.0692884e-38
-0.024511965 1.9707146 1.0247521 1.235385e-38
0.025009252 1.9792279 1.0212249 1.3460562e-38
0.070753202 1.9778125 1.0244844 1.2537883e-38
0.12833314 1.980877 1.0232086 1.1338976e-38
0.17238173 1.9851458 1.0227201 1.0693607e-38
0.2289921 1.9739537 1.0226418 7.7444203e-39
0.27996019 1.9801593 1.0394115 7.3756378e-39
0.33028767 1.9992735 1.035502 7.283082e-39
0.37152639 1.9988275 1.0248902 7.0986908e-39
0.78151667 1.9785012 1.0287077 1.1611947e-38
0.82386315 1.9720342 1.0293326 1.1059494e-38
0.86778009 1.9741838 1.0232154 9.5840057e-39
0.97802383 1.9785954 1.02437 1.1982178e-38
1.017202 1.9697145 1.0262996 1.3088886e-38
1.070371 1.9619002 1.0193244 1.5301944e-38
-0.23259577 2.0128713 1.020216 1.1891431e-38
-0.17920288 2.0164282 1.0195252 1.2721908e-38
-0.12300242 2.0208554 1.0270764 1.3366919e-38
-0.075340517 2.021863 1.0249873 1.1431171e-38
-0.025790375 2.0274687 1.0225822 1.0786163e-38
0.024147546 2.0235198 1.0264734 1.0970554e-38
0.081123322 2.023248 1.0241555 1.1338978e-38
0.12604935 2.0235772 1.0219768 1.1984707e-38
0.17368659 2.0281022 1.0231714 1.2076904e-38
0.22403987 2.0241618 1.0220608 1.2169097e-38
0.2735247 2.0340879 1.0223916 1.2076542e-38
0.31999978 2.0416186 1.0296839 1.1430809e-38
0.73634756 2.0418591 1.0184443 1.1245328e-38
0.78273594 2.0234721 1.0277967 1.3088158e-38
0.82510787 2.0250161 1.0233788 1.1520837e-38
0.86875916 2.0260468 1.0260477 1.0044622e-38
0.94337142 2.0370495 1.0233041 1.0968025e-38
0.97342175 2.0142674 1.0145047 1.1890341e-38
1.0097905 2.0051119 1.0343328 1.4657655e-38
-0.16078736 2.0577338 1.033182 1.1338256e-38
-0.12126944 2.0636251 1.0352259 1.2814108e-38
-0.06979537 2.0762584 1.0295734 1.2353128e-38
-0.023817999 2.0738428 1.0286797 1.2353489e-38
0.022661537 2.0742099 1.0182794 1.1523728e-38
0.072534159 2.0761502 1.0199015 1.1431532e-38
0.12470268 2.0753045 1.0237855 1.0140792e-38
0.18182056 2.0671902 1.0164675 1.1523369e-38
0.22034055 2.0763521 1.0230783 1.1431532e-38
0.27288687 2.0859756 1.0144225 1.2076903e-38
0.31907082 2.0879827 1.0308878 1.2999218e-38
0.36543274 2.0708826 1.0285708 1.1523006e-38
0.42031279 2.0796037 1.0223478 1.161484e-38
0.47533575 2.0891557 1.0235206 1.0877274e-38
0.52683508 2.089251 1.0380663 1.2998499e-38
0.58219773 2.087477 1.0218184 1.3643147e-38
0.62426275 2.0836208 1.024987 1.1614119e-38
0.6746341 2.0861506 1.0316098 1.1337172e-38
0.71881092 2.076268 1.0292051 1.2259124e-38
0.78121579 2.0743077 1.0215795 1.2995967e-38
0.82370734 2.0749567 1.0278395 1.1336444e-38
0.86883885 2.0728037 1.0292431 1.0229375e-38
0.91617531 2.0773356 1.0272954 1.1060219e-38
0.96538323 2.061228 1.0181043 1.4563656e-38
1.0096339 2.0663512 1.0292548 1.45651e-38
-0.027394086 2.1112547 1.0317349 1.1984707e-38
0.023420045 2.1163137 1.0244215 1.106239e-38
0.073951483 2.1253753 1.0258484 1.2261294e-38
0.11824825 2.1261728 1.0230289 1.1523366e-38
0.16437744 2.1231403 1.0278594 1.1339334e-38
0.21918982 2.1272862 1.0173998 1.1246778e-38
0.27119613 2.1273291 1.0196285 1.0417019e-38
0.32118773 2.1217873 1.0203155 1.1338616e-38
0.37116596 2.1325836 1.026858 1.1246419e-38
0.4203063 2.1382024 1.0283619 1.2629355e-38
0.47139534 2.1351268 1.029458 1.1430811e-38
0.53056103 2.125953 1.0221086 1.2444961e-38
0.56826872 2.119556 1.0309134 1.226021e-38
0.62191969 2.1219246 1.0263565 1.1430806e-38
0.67407489 2.1253927 1.0250638 1.1799229e-38
0.7297039 2.1279063 1.0213635 1.2905218e-38
0.78086466 2.1243198 1.0233434 1.2535349e-38
0.82239819 2.1215537 1.0251667 1.1059855e-38
0.87598109 2.1181273 1.0233299 1.1704867e-38
0.92162442 2.1099803 1.0319184 1.2349879e-38
0.97856444 2.1015549 1.0128973 1.4288874e-38
0.039699018 2.1565561 1.0048509 1.0416661e-38
0.084782064 2.158113 1.0243201 1.1154587e-38
0.13514675 2.1661112 1.0292646 1.0877998e-38
0.17632025 2.1684108 1.0248338 1.1431172e-38
0.22485809 2.1818843 1.0257411 1.1338615e-38
0.2742413 2.1736543 1.0152194 1.1615561e-38
0.32376027 2.171911 1.014002 1.2906299e-38
0.3778933 2.1753368 1.0195611 1.1707755e-38
0.42034847 2.1793103 1.0194706 1.1615199e-38
0.47540429 2.1753175 1.026245 1.1891787e-38
0.51719004 2.1676459 1.0244578 1.2444241e-38
0.58177948 2.176558 1.0165209 1.4841329e-38
0.63287622 2.1698179 1.019815 1.437999e-38
0.67743522 2.1785681 1.0223253 1.1799229e-38
0.72818667 2.1772077 1.0251178 1.1521557e-38
0.77866518 2.1763353 1.0245672 1.2350958e-38
0.81655985 2.1717813 1.0250144 1.2626822e-38
0.87489235 2.1765306 1.029918 1.2165848e-38
0.91347378 2.177496 1.0218827 1.2073649e-38
0.13353705 2.2406261 1.0213982 1.5396311e-38
0.18751281 2.2079504 1.0178468 9.4025053e-39
0.22995366 2.2258799 1.0285808 1.0232267e-38
0.27888513 2.2215624 1.0235968 1.1799593e-38
0.32357413 2.226326 1.0231903 1.1062027e-38
0.37622553 2.2245028 1.0206527 1.1246779e-38
0.42396164 2.2247136 1.011884 1.2168733e-38
0.47784773 2.2212229 1.0267003 1.3735338e-38
0.52812999 2.2342312 1.0224062 1.3827535e-38
0.56559998 2.2287123 1.0310909 1.2997413e-38
0.62975514 2.2438526 1.0261554 1.2535718e-38
0.68683827 2.2277026 1.0280373 1.4379989e-38
0.73722148 2.2219427 1.0271901 1.3549144e-38
0.77498651 2.2224517 1.0251133 1.2995968e-38
0.81173819 2.219728 1.0332612 1.1797424e-38
0.85266739 2.2242231 1.0236559 1.2350959e-38
0.16938905 2.268887 1.0143034 1.5304113e-38
0.21237986 2.2873938 1.0247511 1.5027525e-38
0.2796641 2.2601852 1.0177988 9.9553189e-39
0.32855496 2.2685578 1.0270011 1.0692885e-38
0.37863916 2.2812967 1.0283929 1.1707037e-38
0.42678261 2.2842615 1.0225403 1.1891787e-38
0.47793549 2.2833221 1.0206256 1.2628632e-38
0.52642339 2.2727578 1.0313605 1.3366197e-38
0.57438421 2.2666223 1.0277947 1.2813025e-38
0.62391609 2.2734401 1.0294191 1.1245696e-38
0.67194736 2.284894 1.0209128 1.0876554e-38
0.72658175 2.2786694 1.0194281 1.2259125e-38
0.76939982 2.2743759 1.0315524 1.1705591e-38
0.82968819 2.2825654 1.0242651 1.2719746e-38
0.27443776 2.3238151 1.0257552 1.4842413e-38
0.31018168 2.3341115 1.0273925 1.4750215e-38
0.3743138 2.3251889 1.0321984 1.1983621e-38
0.42796412 2.3163304 1.0163705 1.2168376e-38
0.47727636 2.3176141 1.0329869 1.2444241e-38
0.51917565 2.3161254 1.0268571 1.3919372e-38
0.57168359 2.3215685 1.0368456 1.391973e-38
0.62036353 2.3259072 1.0224576 1.3919731e-38
0.67801768 2.3157017 1.0282017 1.2812304e-38
0.72364223 2.3157189 1.0258286 1.2628268e-38
0.76395345 2.316191 1.0365281 1.2535352e-38
0.80520535 2.3129389 1.0090886 1.2811581e-38
0.33758053 2.3590045 1.0308398 1.4749495e-38
0.37675121 2.3594096 1.0197952 1.4841331e-38
0.4248499 2.3596797 1.0283458 1.4473268e-38
0.46553895 2.3648117 1.0369569 1.2905219e-38
0.500624 2.3588998 1.0225143 1.521083e-38
0.63239861 2.359391 1.0199509 1.3183251e-38
0.67665565 2.3644724 1.0313619 1.3182526e-38
0.7251218 2.3651593 1.0208554 1.345839e-38
0.75228131 2.3576336 1.0323554 1.465549e-38
-1.3196704 -1.2633841 1.0515912 9.8634877e-39
-1.2847569 -1.2522744 1.079577 9.4025067e-39
-1.2217884 -1.2630358 1.0721406 1.0234071e-38
-1.1801165 -1.2555126 1.0646635 1.2999582e-38
-1.4238123 -1.2111194 1.0622227 1.0321931e-38
-1.3723508 -1.2342561 1.0574208 9.7705648e-39
-1.3238204 -1.2192825 1.075817 9.8627632e-39
-1.2692792 -1.2179003 1.084089 1.0970194e-38
-1.2241232 -1.2206059 1.0772381 1.2168737e-38
-1.1776274 -1.2283411 1.0764818 1.2538606e-38
-1.1262512 -1.217701 1.0658263 1.290775e-38
-1.075789 -1.2092851 1.0744011 1.2447132e-38
-1.0151362 -1.2208856 1.0788885 1.0145129e-38
-0.98759615 -1.2079333 1.0720567 1.0145846e-38
-1.4708767 -1.1718128 1.067601 1.0598869e-38
-1.4282541 -1.1733873 1.06982 1.0323011e-38
-1.3690249 -1.1841466 1.0678804 1.0138623e-38
-1.3142867 -1.1785059 1.0762057 1.0417013e-38
-1.2775564 -1.1649041 1.0737286 1.2814101e-38
-1.2346736 -1.1758682 1.0830718 1.2721547e-38
-1.172109 -1.1834873 1.0738207 1.0510662e-38
-1.1240685 -1.1765368 1.0786933 1.0972003e-38
-1.077132 -1.1811765 1.0748601 1.2170549e-38
-1.0263547 -1.1717265 1.0676812 1.2815918e-38
-0.97287607 -1.1710604 1.0808152 1.0697584e-38
-1.506271 -1.112839 1.0676587 1.0692867e-38
-1.4813265 -1.1206428 1.0773183 1.0783984e-38
-1.4246241 -1.123494 1.0631517 1.0506686e-38
-1.3812451 -1.133184 1.0695034 1.0415573e-38
-1.315235 -1.1289269 1.0831823 1.0141505e-38
-1.2739398 -1.1230581 1.0744746 1.3735334e-38
-1.214678 -1.1160202 1.0673355 1.1615563e-38
-1.1777854 -1.1334776 1.0682567 1.106239e-38
-1.121708 -1.125183 1.0629126 1.0970195e-38
-1.0696226 -1.129595 1.0807285 1.0326992e-38
-1.0282868 -1.1238062 1.0821407 1.0879806e-38
-0.97394514 -1.1237248 1.0768243 1.3092863e-38
-0.92876583 -1.1176499 1.075523 1.3000673e-38
-0.88702583 -1.111558 1.0610461 1.1158924e-38
-1.4752254 -1.073403 1.0621781 1.0875466e-38
-1.4154208 -1.0723739 1.0560397 1.0599604e-38
-1.3702782 -1.0897021 1.0850815 1.0415573e-38
-1.3089535 -1.0788972 1.0666753 1.3920086e-38
-1.2870908 -1.0692363 1.0706223 1.3919728e-38
-1.2213205 -1.0703692 1.0866921 1.1708119e-38
-1.1725895 -1.088766 1.0731902 1.1247137e-38
-1.1170739 -1.0719445 1.0901738 1.1338972e-38
-1.0638328 -1.0721313 1.0845422 1.1062029e-38
-1.0290093 -1.0742333 1.0797583 1.0970195e-38
-0.97256762 -1.0793473 1.073114 1.0972363e-38
-0.92114747 -1.0753707 1.0715349 1.2079074e-38
-0.87670153 -1.0756445 1.0816039 1.3001031e-38
-0.83409595 -1.0649887 1.0798683 1.3370175e-38
-0.77835006 -1.0627798 1.079765 1.0976336e-38
-0.42115855 -1.0671622 1.0651814 8.3912541e-39
-0.3655746 -1.058828 1.0645286 8.1150189e-39
-0.33181369 -1.0682871 1.0630831 6.9164715e-39
-1.5181686 -1.0291003 1.0588561 1.1152768e-38
-1.4746395 -1.0139452 1.0730311 1.0599242e-38
-1.428268 -1.0267773 1.0700381 1.0599605e-38
-1.3670858 -1.0332751 1.088576 1.12475e-38
-1.3303419 -1.0226084 1.0700427 1.3643501e-38
-1.272204 -1.0210173 1.0750756 1.2445683e-38
-1.2353945 -1.0106227 1.0802335 1.1616644e-38
-1.0696652 -1.0378469 1.0817056 1.1983982e-38
-1.016698 -1.0293928 1.0771261 1.1799952e-38
-0.9692803 -1.0262774 1.0716736 1.1615923e-38
-0.91506833 -1.0329422 1.0665557 1.115531e-38
-0.86310023 -1.0297472 1.0663846 1.2171266e-38
-0.8234027 -1.031165 1.0775443 1.3369451e-38
-0.77391404 -1.0217892 1.0816824 1.4199575e-38
-0.73268259 -1.0084211 1.0730494 1.4752748e-38
-0.40211102 -1.0090517 1.0707593 1.0603218e-38
-0.37994859 -1.0230159 1.0686728 9.4028752e-39
-0.33286148 -1.0219927 1.0661269 6.0852661e-39
-0.27415404 -1.0161047 1.0734503 5.8961889e-39
-0.23602431 -1.0090162 1.071867 4.5078496e-39
-1.5511904 -0.97952431 1.0522591 1.1337518e-38
-1.5252419 -0.97514695 1.0739048 1.1060936e-38
-1.4793237 -0.97343969 1.0675987 1.0691799e-38
-1.4450986 -0.99692732 1.0534414 1.0691805e-38
-1.3752744 -0.9770261 1.0769634 1.1984702e-38
-1.3394165 -0.97767013 1.0760208 1.4288869e-38
-1.2678492 -0.97426307 1.0697145 1.1708481e-38
-0.91844517 -0.99362612 1.0568283 1.1984707e-38
-0.87046558 -0.97844458 1.0747393 1.1984707e-38
-0.81946695 -0.98328608 1.0801394 1.1064556e-38
-0.77917856 -0.98497647 1.0780424 1.1986516e-38
-0.72466046 -0.98052126 1.075441 1.4291767e-38
-0.680462 -0.96805018 1.0718036 1.4292852e-38
-0.63517278 -0.96211904 1.0666407 1.42021e-38
-0.47163019 -0.97396398 1.0793357 1.0881611e-38
-0.42337009 -0.97593951 1.0760773 1.1616292e-38
-0.37736604 -0.98649311 1.0760564 6.822478e-39
-0.32031366 -0.97228712 1.0767734 6.5451596e-39
-0.27772921 -0.99035263 1.0798559 6.2638896e-39
-0.23190938 -0.97924185 1.079731 3.9532381e-39
-1.5744539 -0.93599409 1.0678749 1.1245684e-38
-1.5295432 -0.91529649 1.069169 1.0876549e-38
-1.4808493 -0.93044984 1.0617874 1.0784717e-38
-1.4127709 -0.91470098 1.0860264 1.1707756e-38
-1.3792804 -0.92857385 1.0767263 1.3183244e-38
-1.3158396 -0.92601395 1.0779066 1.198435e-38
-1.2871385 -0.93109399 1.0649933 1.1892515e-38
-0.82538444 -0.93474597 1.0750781 1.2630074e-38
-0.76542884 -0.92314303 1.0784571 1.2538241e-38
-0.72377104 -0.92116433 1.0790402 1.2261657e-38
-0.67671019 -0.93489057 1.0817597 1.1986515e-38
-0.62299633 -0.92635161 1.0737081 1.4844943e-38
-0.57708931 -0.91421407 1.0716977 1.5490673e-38
-0.52882874 -0.90878314 1.0673207 1.4568716e-38
-0.46760851 -0.91960204 1.0730627 1.3552397e-38
-0.41568539 -0.93005735 1.0610168 6.9132317e-39
-0.37118232 -0.92561686 1.076219 5.8079603e-39
-0.33623624 -0.9377895 1.0723912 7.2816443e-39
-0.25942317 -0.9152106 1.0779469 4.4134918e-39
-0.23701024 -0.92697084 1.0805249 4.136549e-39
-1.5666618 -0.86874908 1.0654567 1.1245685e-38
-1.5275494 -0.86573154 1.065748 1.0968388e-38
-1.4620168 -0.8790372 1.0689076 1.0877275e-38
-1.4203984 -0.86783123 1.0757953 1.2537158e-38
-1.3799855 -0.88313669 1.072836 1.4012644e-38
-1.323296 -0.87062472 1.0786759 1.2076546e-38
-0.72259951 -0.89185292 1.0639738 1.3183246e-38
-0.67085338 -0.88427138 1.0667464 1.2906665e-38
-0.62509596 -0.87838107 1.0701106 1.281519e-38
-0.56814402 -0.87739855 1.0779384 1.4198128e-38
-0.52343851 -0.87631345 1.0796251 1.5672171e-38
-0.42102039 -0.87710649 1.0620247 5.0714785e-39
-0.39136329 -0.88473922 1.0775779 6.4536913e-39
-0.26547819 -0.87130588 1.0741405 5.9761358e-39
-0.24308604 -0.89037877 1.076973 5.9764945e-39
-1.5713385 -0.82183117 1.0694809 1.1060941e-38
-1.540344 -0.82452637 1.0716885 1.1060586e-38
-1.4719969 -0.82426769 1.0705512 1.0601048e-38
-1.4293332 -0.81595713 1.073253 1.3643503e-38
-1.3756756 -0.83340645 1.0778868 1.2814107e-38
-1.3388634 -0.82720882 1.0624385 1.1523732e-38
-0.5216229 -0.83832246 1.0732119 1.2999582e-38
-0.47795391 -0.82682204 1.0763288 1.3551676e-38
-0.42881206 -0.81624138 1.0622412 1.207763e-38
-0.30693376 -0.80758578 1.0501833 5.5173156e-39
-0.27645719 -0.82513624 1.0722349 6.6204248e-39
-1.6101642 -0.76883924 1.0640011 1.1245689e-38
-1.5796515 -0.77622694 1.0633074 1.0876552e-38
-1.5283622 -0.77673966 1.0648986 1.0507777e-38
-1.4680237 -0.77169698 1.0745349 1.2353486e-38
-1.4315678 -0.77826202 1.0783784 1.4103761e-38
-1.3806525 -0.77256411 1.0855445 1.1799957e-38
-1.3456429 -0.78303194 1.0881174 9.0337256e-39
-0.42675686 -0.79541051 1.0834087 1.3552393e-38
-0.38184464 -0.77839804 1.0626333 1.410521e-38
-0.31311503 -0.76921695 1.0779692 6.993889e-39
-0.28676721 -0.77944255 1.0748752 7.0806827e-39
-1.6246688 -0.72439545 1.0635283 1.1061301e-38
-1.5747873 -0.71608579 1.0737047 1.1245698e-38
-1.513395 -0.72431087 1.0770472 1.1523728e-38
-1.4810925 -0.71823573 1.0731972 1.3090688e-38
-1.4230013 -0.71619731 1.0697168 1.152301e-38
-1.386173 -0.71954048 1.0682529 1.0140798e-38
-0.31572637 -0.71905404 1.0753694 6.9910108e-39
-0.28769809 -0.72293198 1.0727075 7.5495894e-39
-0.24289532 -0.72423756 1.0801772 3.1335654e-39
0.32802254 -0.7328614 1.0668451 8.322802e-40
-1.6569461 -0.66189915 1.0705849 1.1522995e-38
-1.622393 -0.67548382 1.0741124 1.133789e-38
-1.5690848 -0.66280341 1.0623657 1.1430812e-38
-1.5203073 -0.67255163 1.0766693 1.2168737e-38
-1.4817898 -0.67638427 1.0831797 1.3920091e-38
-1.4268565 -0.67298901 1.0726324 1.2353493e-38
-1.3949344 -0.6938448 1.0898151 1.2078344e-38
-0.31224969 -0.68209159 1.0668542 8.0051683e-39
-0.27498248 -0.67471033 1.077062 5.9923572e-39
-0.22630124 -0.66090679 1.0718927 3.322651e-39
0.23718345 -0.6578331 1.0751858 3.5934533e-39
0.28142092 -0.67618579 1.0722018 1.2918164e-39
0.31991684 -0.67558867 1.0776104 1.1996208e-39
-1.6612375 -0.6227746 1.0683525 1.1338249e-38
-1.6281554 -0.621328 1.07706 1.1430449e-38
-1.5694294 -0.62026107 1.0706801 1.1799953e-38
-1.528916 -0.62930137 1.0725513 1.3459475e-38
-1.4735868 -0.62729281 1.0800303 1.2906667e-38
-1.4424967 -0.63237017 1.0715326 1.2353854e-38
-0.26781929 -0.6363951 1.0660419 6.7331733e-39
-0.22141005 -0.62919366 1.0748901 6.6420622e-39
-0.16415244 -0.60545456 1.0576748 1.8901906e-38
0.18462077 -0.61144495 1.0837183 3.5037899e-39
0.23783687 -0.61572486 1.072039 8.3083967e-40
0.27455914 -0.62107921 1.0742997 8.3084107e-40
0.31089258 -0.61962295 1.0854408 3.6986432e-40
-1.6779321 -0.57252091 1.0750991 1.1430808e-38
-1.6187065 -0.57872212 1.0711081 1.1523368e-38
-1.5737575 -0.58047974 1.0714334 1.2445683e-38
-1.5240999 -0.5619998 1.059811 1.3368001e-38
-1.4780502 -0.5770635 1.0728717 1.2262379e-38
-0.20997554 -0.58476484 1.0675336 1.3096485e-38
-0.1798369 -0.57702279 1.0657575 1.7796287e-38
-0.12067822 -0.56021869 1.0579346 8.5785264e-39
0.18924952 -0.57655352 1.0866923 1.6595171e-39
0.22522773 -0.57365775 1.076438 7.3792377e-40
0.26371396 -0.57755792 1.0725696 1.1985432e-39
-1.7158343 -0.52825952 1.0699335 1.1523362e-38
-1.6853937 -0.52245241 1.0795096 1.16152e-38
-1.6264299 -0.51968777 1.0745544 1.1892509e-38
-1.5820168 -0.52762818 1.0767002 1.3183249e-38
-1.5205475 -0.52439183 1.0707637 1.2722635e-38
-1.490536 -0.52955759 1.0748756 1.2722637e-38
-0.18127155 -0.54832757 1.0533345 1.6044214e-38
-0.12449715 -0.51933008 1.0563864 8.4848874e-39
-0.091401599 -0.52699214 1.0671431 2.7683968e-39
-0.016718298 -0.52309531 1.0746018 5.6062841e-39
0.017004967 -0.51619947 1.0714765 7.9180117e-39
0.068326212 -0.5186494 1.0634875 3.9626058e-39
0.12989537 -0.51647896 1.067555 2.4885533e-39
0.16994879 -0.52438772 1.0818654 1.382933e-39
0.22574265 -0.53236204 1.072624 1.7535176e-39
0.25064212 -0.52488732 1.0624771 1.8431923e-39
-1.7243748 -0.48145765 1.0716618 1.1615559e-38
-1.6763054 -0.47484756 1.0770874 1.1799593e-38
-1.6201999 -0.47360471 1.0773386 1.2630077e-38
-1.5807362 -0.47644442 1.0749865 1.4012647e-38
-1.5333477 -0.47465333 1.0786363 1.2354575e-38
-0.11185616 -0.48883086 1.0563197 1.4780083e-39
-0.07386446 -0.49859178 1.0651761 2.299123e-39
-0.016233295 -0.48848021 1.0647695 7.0760149e-39
0.017417952 -0.48484382 1.0721246 7.0853742e-39
0.068424076 -0.49085552 1.0666672 1.9364642e-39
0.13224772 -0.47930905 1.0730866 3.4105082e-39
0.17228077 -0.47799224 1.0736599 2.2148615e-39
0.21691366 -0.47737637 1.0745848 3.0482319e-39
0.27429122 -0.47677955 1.0815936 2.6743921e-39
0.32067698 -0.47642174 1.0833753 1.8449916e-39
0.6262306 -0.47588217 1.0583001 1.3920448e-38
0.68239051 -0.46231958 1.069521 1.3551667e-38
0.72132254 -0.45230633 1.0935806 1.3366197e-38
0.76722276 -0.45045927 1.057772 1.3458754e-38
-1.7567024 -0.4151423 1.0727726 1.179995e-38
-1.7158329 -0.42551994 1.0681834 1.1983983e-38
-1.6728357 -0.42525044 1.0849733 1.1799234e-38
-1.6265779 -0.4245767 1.0680975 1.3736424e-38
-1.5668691 -0.42863262 1.0747895 1.2538606e-38
-1.5400356 -0.42584997 1.0728066 1.2998145e-38
0.13570124 -0.43434671 1.075359 4.9771081e-39
0.17521925 -0.42780581 1.0710869 1.9411641e-39
0.23220249 -0.42175829 1.0707318 1.7549652e-39
0.27630344 -0.41934225 1.067746 1.3829344e-39
0.32567856 -0.4215669 1.0773126 1.659164e-39
0.35962045 -0.43938687 1.0713731 2.2137769e-39
0.72260547 -0.44766712 1.0608755 1.3459112e-38
0.77908868 -0.42680478 1.0628309 1.3551306e-38
0.82193863 -0.42193907 1.0727603 1.3459113e-38
0.87327403 -0.41924986 1.0707951 1.3274362e-38
0.92995286 -0.40975273 1.0812244 1.2906297e-38
0.97809649 -0.41197965 1.0825933 1.2998496e-38
1.0153867 -0.40383017 1.0775932 1.2998494e-38
-1.773043 -0.37144613 1.0785819 1.179995e-38
-1.7208018 -0.3720437 1.0732962 1.2168376e-38
-1.6712272 -0.37765557 1.0825419 1.2722275e-38
-1.6205055 -0.37309191 1.0816449 1.3275808e-38
-1.5849615 -0.37749022 1.0780692 1.2353856e-38
0.17385563 -0.38815135 1.0582745 1.8522265e-39
0.22568345 -0.39383519 1.0735612 1.2014271e-39
0.32453579 -0.37446272 1.0681891 2.1205051e-39
0.36455616 -0.361018 1.0689037 9.957498e-39
0.880234 -0.38751811 1.0727015 1.3366917e-38
0.93295228 -0.3738471 1.0681639 1.2998494e-38
0.97542411 -0.37261733 1.0781884 1.2444597e-38
1.0277026 -0.37947297 1.071581 1.2629352e-38
1.0736601 -0.37017506 1.0818908 1.2721188e-38
1.1273477 -0.3577764 1.0734615 1.2813382e-38
-1.8023826 -0.32017952 1.0584986 1.2076177e-38
-1.7757689 -0.3265048 1.0813224 1.1891429e-38
-1.7411008 -0.3258101 1.0672852 1.2537157e-38
-1.6722075 -0.32289654 1.076683 1.3737145e-38
-1.625164 -0.32510224 1.0753111 1.2814471e-38
-1.5965654 -0.335233 1.0899847 1.263116e-38
0.32921231 -0.32997921 1.0649235 6.4540626e-39
0.37706068 -0.31893563 1.0654621 4.5190306e-39
0.42296252 -0.31585208 1.0696929 1.5691306e-39
0.46654919 -0.31242388 1.0687718 1.8428364e-39
0.57732791 -0.30648047 1.0713005 4.9713725e-39
0.62928671 -0.31119558 1.0766963 4.3281639e-39
0.67733598 -0.31687894 1.0773214 1.9397236e-39
0.72528523 -0.32152623 1.0825639 1.480186e-39
0.76901555 -0.31263924 1.0784165 1.3879903e-39
0.97505438 -0.33790481 1.0524403 1.3183605e-38
1.021363 -0.3315196 1.0703037 1.2906298e-38
1.0833937 -0.31260395 1.0616499 1.262971e-38
1.1227627 -0.33043379 1.0636454 1.2536797e-38
1.1739954 -0.32540879 1.0766544 1.24446e-38
1.2254325 -0.31123123 1.0677627 1.244496e-38
1.2729448 -0.30834785 1.0694523 1.2444241e-38
-1.9367458 -0.25295633 1.094208 6.8239171e-39
-1.8740611 -0.27605563 1.0969321 4.1502397e-39
-1.8174243 -0.27067724 1.074245 1.1983984e-38
-1.7762195 -0.27695882 1.0720235 1.1891427e-38
-1.7155429 -0.26060069 1.0691062 1.1893236e-38
-1.6686555 -0.2696774 1.070505 1.2537524e-38
-1.6381034 -0.28247648 1.0747297 1.244605e-38
0.38237634 -0.28434634 1.0721078 3.0438977e-39
0.4362832 -0.27506402 1.0691861 1.6584437e-39
0.4758423 -0.27232856 1.0643638 5.0585193e-39
0.52528083 -0.27537975 1.0725518 5.4280263e-39
0.57495958 -0.27846292 1.0744286 2.4889345e-39
0.62284636 -0.2696763 1.070075 1.2025159e-39
0.67598665 -0.26867855 1.0717665 1.1106804e-39
0.73127168 -0.27455261 1.0820222 1.1106804e-39
0.77795011 -0.27867031 1.0752248 1.2954332e-39
0.82447165 -0.27956268 1.0744562 1.3876288e-39
0.86893392 -0.26169035 1.074878 1.3876288e-39
0.90583849 -0.25050977 1.0853558 1.6631339e-39
1.1411238 -0.27665985 1.055462 1.2722984e-38
1.1639533 -0.28234631 1.0643197 1.2445317e-38
1.2261275 -0.28574812 1.075271 1.1983257e-38
1.2776244 -0.28488231 1.0793856 1.2259847e-38
1.3282623 -0.27679077 1.0676858 1.24446e-38
1.3773544 -0.26938587 1.0748146 1.2352042e-38
1.4195194 -0.25915068 1.0679417 1.2351681e-38
1.4602919 -0.25401846 1.0795661 1.2259485e-38
-1.9532883 -0.24524397 1.084757 5.4409869e-39
-1.9106497 -0.22829437 1.0688837 9.8645737e-39
-1.8766967 -0.22577879 1.0749085 1.041774e-38
-1.8252963 -0.22548498 1.0756373 1.1799594e-38
-1.7786396 -0.22284162 1.0760579 1.1983621e-38
-1.718961 -0.22276013 1.072799 1.2445686e-38
-1.6684297 -0.22342597 1.0773385 1.2445327e-38
-1.6417043 -0.23515826 1.0539987 1.2998145e-38
0.47254866 -0.23682332 1.0727063 4.5075049e-39
0.52899039 -0.23507001 1.0682781 2.5796868e-39
0.58007163 -0.238397 1.070634 1.4780224e-39
0.63064474 -0.24421157 1.0693142 9.2700658e-40
0.68448091 -0.24338308 1.0785282 8.3445222e-40
0.73294127 -0.24201593 1.0679388 8.3481375e-40
0.77737194 -0.2323824 1.0759593 8.3445222e-40
0.82056808 -0.23043808 1.0757096 1.1106804e-39
0.87710166 -0.22148591 1.0743371 1.2032375e-39
0.92374831 -0.22790615 1.0762693 1.4798244e-39
0.96362966 -0.21159172 1.0766736 1.4794629e-39
1.3121101 -0.24280494 1.0941201 1.170703e-38
1.3833255 -0.23100469 1.0719142 1.1799225e-38
1.4286805 -0.24286056 1.0884075 1.2259485e-38
1.4740733 -0.23404525 1.0740892 1.2075094e-38
1.5277315 -0.22090107 1.0805789 1.2074734e-38
1.5592322 -0.20772111 1.0860959 1.235204e-38
-1.9267128 -0.17585757 1.0632944 1.050885e-38
-1.8672199 -0.16937129 1.0675192 1.0139707e-38
-1.8195254 -0.17658389 1.073403 1.235349e-38
-1.7765136 -0.17224036 1.0719732 1.0508851e-38
-1.7327529 -0.17412709 1.0766253 1.1983984e-38
-1.6812537 -0.18280226 1.0727534 1.1339335e-38
0.83974934 -0.19954883 1.075987 7.4225518e-40
0.87375462 -0.17779297 1.0796204 8.3445222e-40
0.92402935 -0.17476839 1.0753766 1.2950716e-39
0.97731847 -0.17418103 1.075213 2.1244722e-39
1.0224044 -0.16891412 1.0733581 1.0048601e-38
1.0783197 -0.16139084 1.070606 1.5301579e-38
1.5383198 -0.1767133 1.074352 1.1982537e-38
1.5710098 -0.17820545 1.0725628 1.235204e-38
1.6186947 -0.15214115 1.0744985 1.4195593e-38
-1.9575521 -0.1075322 1.0593724 1.5674337e-38
-1.9191345 -0.11656401 1.0784535 1.0692158e-38
-1.8730232 -0.12224827 1.0714691 1.1523368e-38
-1.8321022 -0.1338385 1.0785582 1.1892149e-38
-1.774758 -0.12878916 1.0785969 1.2352771e-38
-1.7323115 -0.13967517 1.0772216 1.2168017e-38
0.93630743 -0.13096344 1.0735606 9.2628771e-40
0.97502929 -0.1229564 1.0737864 6.2703846e-39
1.0249399 -0.12682608 1.0736365 1.1246781e-38
1.0658777 -0.12549461 1.0742612 1.6409012e-38
1.1004717 -0.10963486 1.0792208 1.7794838e-38
1.1637868 -0.1152131 1.0636953 1.7793757e-38
1.2097257 -0.10532305 1.0604423 1.751753e-38
1.5392619 -0.12384663 1.0797937 1.1982537e-38
1.5725427 -0.13368988 1.063061 1.2720824e-38
1.6158056 -0.11804965 1.0718145 1.3735337e-38
-2.0115967 -0.053111374 1.0669186 1.5582147e-38
-1.972174 -0.068279482 1.0586135 1.345984e-38
-1.9230434 -0.07009726 1.0681247 1.1523008e-38
-1.87648 -0.0774341 1.0774437 1.1892512e-38
-1.836738 -0.092448831 1.0681641 1.3645316e-38
0.97664958 -0.076974109 1.0764458 1.2260568e-38
1.0313684 -0.078016169 1.078073 1.4933882e-38
1.0751573 -0.073779158 1.0733206 1.7424613e-38
1.1254462 -0.067862272 1.0730538 1.7794838e-38
1.1731784 -0.063928202 1.0752397 1.7610449e-38
1.2212248 -0.071946181 1.0671941 1.7242025e-38
1.2517117 -0.072277457 1.0665293 1.7056552e-38
1.5271683 -0.076056801 1.0736322 1.2259485e-38
1.5724227 -0.063439265 1.0908926 1.2721185e-38
1.6065192 -0.078818999 1.07637 1.3735696e-38
-2.0148079 -0.02373961 1.0653988 1.2260575e-38
-1.9677093 -0.022049155 1.0725019 1.2260936e-38
-1.9220368 -0.024464855 1.0786146 1.1154944e-38
-1.8858187 -0.024252146 1.0799062 1.1524091e-38
1.0258691 -0.033643913 1.0710489 1.6226425e-38
1.0780139 -0.028480977 1.0737892 1.7794838e-38
1.1240174 -0.026626691 1.0791832 1.779484e-38
1.1727371 -0.027177691 1.0756341 1.7425697e-38
1.2247518 -0.019718125 1.0707762 1.7425697e-38
1.2732608 -0.017706461 1.0704799 1.714911e-38
1.3274399 -0.0090553435 1.0716118 1.6965078e-38
1.486824 -4.7683716e-06 1.0757921 1.2536076e-38
1.5189008 -0.023202751 1.0784688 1.2443876e-38
1.5660568 -0.027832815 1.0686483 1.3182162e-38
-2.0674143 0.031241804 1.0604382 1.1522645e-38
-2.0250423 0.020665143 1.0725777 1.2630438e-38
-1.9756864 0.028747873 1.0776836 1.1339337e-38
-1.9331661 0.01988323 1.0801927 1.1892513e-38
-1.8845774 0.020216664 1.0622863 1.0417383e-38
1.0329242 0.0052941237 1.0831382 1.6781765e-38
1.0815506 0.012389462 1.0598751 1.6781047e-38
1.1287687 0.022677921 1.0648966 1.6597014e-38
1.1795967 0.018623861 1.0779537 1.714983e-38
1.224139 0.026681045 1.075682 1.714947e-38
1.2788514 0.022678897 1.0685476 1.6964359e-38
1.3226129 0.029609736 1.0744857 1.6964357e-38
1.3749859 0.023233436 1.0685011 1.6503739e-38
1.4208215 0.029944709 1.0845475 1.6134594e-38
1.4788147 0.038576994 1.0833496 1.4104847e-38
1.5162582 0.029988015 1.0653406 1.3182522e-38
1.5568886 0.025664553 1.0733185 1.3827893e-38
-2.1376057 0.060479522 1.0580941 1.7889213e-38
-2.0717671 0.077020489 1.0644575 1.1522282e-38
-2.01899 0.07127393 1.0712528 1.189215e-38
-1.9763668 0.075807288 1.0777328 1.1523008e-38
-1.9300642 0.070003681 1.0666007 1.013971e-38
1.1756909 0.067495838 1.0744765 1.6320429e-38
1.2279221 0.073922925 1.0724882 1.6043842e-38
1.2742366 0.070908956 1.0749445 1.6411545e-38
1.3222114 0.071973793 1.0744971 1.7056915e-38
1.3720831 0.068095423 1.0721227 1.6595575e-38
1.4212455 0.080044046 1.0710628 1.6595215e-38
1.4751559 0.081178144 1.0756245 1.5304112e-38
1.5170565 0.074780054 1.0700619 1.4381432e-38
1.5655068 0.087469459 1.0908463 1.5488503e-38
-2.1077423 0.13703656 1.0685498 1.1521912e-38
-2.0828533 0.1218347 1.0664549 1.0969107e-38
-2.0264881 0.12654261 1.0811604 1.0600687e-38
-1.9801903 0.12274249 1.0790244 1.1246779e-38
-1.9225919 0.11466376 1.0534079 1.0418465e-38
1.2920964 0.11287914 1.0864426 1.5213721e-38
1.3262029 0.11702684 1.0685153 1.5674337e-38
1.3735973 0.12021459 1.0745381 1.604312e-38
1.4255404 0.12740721 1.0803745 1.585837e-38
1.4780523 0.12376408 1.0706246 1.5304112e-38
1.5219421 0.12500109 1.0751952 1.5764731e-38
1.5618809 0.13068482 1.0717247 1.5765451e-38
1.6106266 0.12838511 1.0812309 1.5488504e-38
1.6802886 0.12597448 1.0684015 1.5395584e-38
-2.1608076 0.19485438 1.0534358 1.1614473e-38
-2.1143286 0.17729779 1.0737958 1.1152776e-38
-2.0703549 0.17009234 1.0773001 1.0876912e-38
-2.0240309 0.17208385 1.0812563 1.0508128e-38
-1.9845096 0.17228854 1.0665355 1.1616278e-38
1.3475209 0.15133522 1.0960698 1.5121884e-38
1.385352 0.16923428 1.0900259 1.4660906e-38
1.4329435 0.17361666 1.0752978 1.5120802e-38
1.4754046 0.17375118 1.0771064 1.512008e-38
1.5298061 0.17376351 1.0713392 1.5765813e-38
1.5768741 0.17340729 1.0762542 1.5765093e-38
1.6237516 0.17739369 1.0794892 1.5765091e-38
1.674031 0.1764344 1.0711932 1.5672894e-38
1.7150402 0.18149592 1.0702803 1.5580694e-38
-2.1691165 0.23407066 1.0737352 1.143008e-38
-2.1278706 0.2188634 1.0819646 1.0414848e-38
-2.0792689 0.22156641 1.0638602 1.1154577e-38
-2.0228603 0.2290221 1.0786829 1.1154581e-38
1.4399431 0.2210353 1.0776579 1.3459836e-38
1.4773644 0.22158998 1.0829151 1.4290318e-38
1.5203029 0.23215088 1.0816953 1.5028605e-38
1.5751449 0.21698518 1.0754132 1.6134594e-38
1.6218611 0.22452533 1.0777431 1.5949482e-38
1.6754417 0.23004401 1.0730838 1.6041317e-38
1.7195197 0.22537974 1.0726308 1.6133512e-38
1.7711928 0.22453482 1.07953 1.5765088e-38
-2.2284067 0.29942897 1.0836006 1.1431521e-38
-2.165792 0.27970874 1.0668271 1.1153132e-38
-2.1187475 0.27411035 1.0760007 1.0600683e-38
-2.0805137 0.27542293 1.0803418 1.069324e-38
-2.0350485 0.27180582 1.0710999 1.1522285e-38
1.4218464 0.2779091 1.0654247 1.3090329e-38
1.4721849 0.27791172 1.0808375 1.4288874e-38
1.5330968 0.25507507 1.0878071 1.4844934e-38
1.578766 0.27373362 1.0561709 1.5766528e-38
1.6333656 0.27600795 1.0704235 1.5949841e-38
1.6757728 0.27386871 1.079466 1.6041318e-38
1.7222215 0.27329084 1.0737917 1.6225708e-38
1.7619005 0.27646852 1.0741519 1.6041317e-38
1.8328127 0.28166628 1.0846772 1.85306e-38
1.8922324 0.27394441 1.0613004 1.8622072e-38
-2.2125316 0.31253338 1.0871098 1.1616275e-38
-2.1721683 0.32505259 1.0782276 1.1890345e-38
-2.1346703 0.3288058 1.0716074 1.1521557e-38
-2.0686812 0.3239581 1.0672096 1.1337893e-38
-2.0458493 0.3110325 1.0829499 1.1615196e-38
1.3978629 0.33841693 1.0566645 1.3091772e-38
1.407038 0.31480783 1.0697386 1.2998854e-38
1.4711305 0.32755512 1.0712711 1.5118996e-38
1.6340574 0.32298726 1.0733944 1.5858006e-38
1.6803787 0.325111 1.0767837 1.6226067e-38
1.7204603 0.32346141 1.072251 1.6502655e-38
1.7701277 0.32752472 1.0700125 1.6225709e-38
1.8139325 0.32503009 1.0909554 1.6318264e-38
-2.1637218 0.37240985 1.0708312 1.1891429e-38
-2.1267602 0.37907091 1.0728357 1.1706311e-38
-2.0849171 0.3788161 1.0732206 1.1336807e-38
1.3927218 0.38020772 1.0767595 1.3183244e-38
1.4287685 0.37299708 1.0678371 1.4013008e-38
1.5905321 0.38546541 1.0786245 1.5764732e-38
1.6271747 0.3798545 1.0734515 1.5579615e-38
1.6738176 0.37473294 1.071344 1.5672891e-38
1.7170737 0.37805742 1.0761691 1.6318262e-38
1.7742555 0.37044078 1.0730956 1.6871437e-38
1.813107 0.37878698 1.0503371 1.5857288e-38
-2.1564662 0.42368466 1.0684407 1.1708118e-38
-2.1264348 0.42085955 1.0755124 1.1430446e-38
-2.0935256 0.42601484 1.0676018 1.1153138e-38
1.3855809 0.43511671 1.076746 1.3275443e-38
1.4200691 0.4242703 1.0740343 1.4842409e-38
1.5365747 0.42950976 1.0784241 1.5026077e-38
1.577293 0.43150356 1.0700927 1.2998132e-38
1.6218054 0.42389882 1.0732749 1.5579977e-38
1.6718185 0.42427248 1.0725769 1.5580697e-38
1.7168016 0.42268023 1.0772123 1.6410099e-38
1.7897691 0.41715708 1.0644132 1.6686685e-38
-2.1709163 0.47935104 1.0733107 1.1247865e-38
-2.1202152 0.47266793 1.0723686 1.1430808e-38
-2.0812619 0.47805622 1.070152 1.1061662e-38
1.3847224 0.47189808 1.0818911 1.4105204e-38
1.4129841 0.46632951 1.065003 1.548814e-38
1.482076 0.48465595 1.0811327 9.4972177e-39
1.5260161 0.47860327 1.0696086 1.1430441e-38
1.5750948 0.47577217 1.0703642 1.0417376e-38
1.6237426 0.47521698 1.0761433 1.4289957e-38
1.6740795 0.4758372 1.0755563 1.5396302e-38
1.7280248 0.46502203 1.085659 1.6318621e-38
1.7666988 0.47743443 1.0942423 1.7242016e-38
-2.221633 0.52213407 1.0641872 1.1248951e-38
-2.1830657 0.51981521 1.0793384 1.1063117e-38
-2.1151323 0.52450109 1.0751381 1.1246414e-38
-2.0679002 0.52566803 1.0719423 1.0968749e-38
-2.047286 0.5320425 1.0934222 1.1153498e-38
1.3457228 0.54192275 1.0790882 1.3184688e-38
1.382308 0.52058649 1.0721663 1.4565824e-38
1.4028274 0.51429355 1.0692469 1.5764368e-38
1.4882219 0.53128028 1.070786 9.3113831e-39
1.5245012 0.52737474 1.0759414 8.8507665e-39
1.5747052 0.52756405 1.0732033 9.5883357e-39
1.6232635 0.52113485 1.0746708 1.5027882e-38
1.6668168 0.52675146 1.0837604 1.724094e-38
-2.2552423 0.57770169 1.0730163 1.1156754e-38
-2.2226849 0.57847929 1.0783082 1.0694692e-38
-2.1786768 0.56535953 1.0835689 1.0418102e-38
-2.1214812 0.56688768 1.0772382 1.106383e-38
-2.0695999 0.57935137 1.0810982 1.1429723e-38
-2.0415699 0.56820953 1.0928893 1.1428287e-38
1.3429894 0.57647997 1.0829512 1.3184331e-38
1.3744594 0.57641828 1.0737936 1.5211554e-38
1.4354272 0.58427352 1.0817364 9.7719997e-39
1.4797236 0.5743804 1.0724677 5.3491318e-39
1.5197023 0.57142711 1.0715805 7.0994068e-39
1.5806385 0.57613117 1.075691 1.0050034e-38
-2.2700844 0.62373346 1.0818102 1.0971281e-38
-2.2268615 0.61589229 1.0821753 1.0048954e-38
-2.1832867 0.62569201 1.0742015 1.0879083e-38
-2.129277 0.61040944 1.0676304 1.097272e-38
-2.0704584 0.62444413 1.0740277 1.1429729e-38
1.3357697 0.64030647 1.0763435 1.5119719e-38
1.3694978 0.62315524 1.0759985 1.521011e-38
1.4321442 0.63434047 1.0761708 6.8239017e-39
1.4780792 0.62583464 1.0722448 7.1001271e-39
1.5157325 0.61560947 1.0841339 9.4943324e-39
1.5594807 0.61660075 1.0729275 3.8747206e-39
-2.3149648 0.67369354 1.0758687 1.0877281e-38
-2.2720058 0.67905939 1.0736674 1.0417742e-38
-2.2056475 0.67294306 1.0692105 1.0879082e-38
-2.1853082 0.67258888 1.0815314 1.0878721e-38
-2.1168575 0.66531241 1.0729507 1.0972366e-38
-2.0899417 0.67877364 1.0655981 1.1615926e-38
1.3227888 0.67437816 1.0716323 1.5672534e-38
1.37981 0.67128867 1.084294 1.3735334e-38
1.43463 0.6779741 1.0742786 8.1139189e-39
1.4674494 0.67389351 1.0747212 6.9160946e-39
1.5238737 0.67638755 1.0773461 6.4529598e-39
-2.3091843 0.72557765 1.0728 1.0325908e-38
-2.2892857 0.72469878 1.0802357 1.0417382e-38
-2.2221837 0.7281822 1.0733142 1.0509933e-38
-2.1623459 0.70185387 1.0802219 1.0511384e-38
-2.124284 0.72874737 1.0706421 1.0325913e-38
-2.0928464 0.7178781 1.0757957 1.1248226e-38
1.3263992 0.72293049 1.0811516 1.5395947e-38
1.38598 0.7256009 1.0691073 1.0785791e-38
1.4288815 0.72656387 1.0791353 8.29795e-39
1.466768 0.71667004 1.0800195 8.6660123e-39
1.5156704 0.71269715 1.057041 3.7825235e-39
-2.354522 0.79820281 1.0820348 1.0511384e-38
-2.3229942 0.77466136 1.0729339 1.0233349e-38
-2.2751904 0.77232754 1.078166 1.0878356e-38
-2.2395294 0.76055312 1.0809736 9.6812488e-39
-2.155385 0.78319156 1.0829177 1.0603582e-38
-2.1278572 0.77838534 1.0757371 1.0878361e-38
1.2941149 0.77784997 1.0782396 1.5395949e-38
1.3210732 0.77880764 1.0626353 1.5671447e-38
1.3810257 0.77638328 1.0696301 1.0048947e-38
1.4229859 0.77342743 1.0739866 7.5603864e-39
1.4637015 0.76577783 1.0749357 1.1430441e-38
-2.371124 0.83235598 1.0748419 1.0141516e-38
-2.3332872 0.82400376 1.065739 1.0508856e-38
-2.2755504 0.82005316 1.0801215 1.0602127e-38
-2.1741734 0.82771468 1.0697405 1.0141519e-38
-2.1331792 0.82604879 1.0751767 1.0786886e-38
1.289085 0.82330579 1.0827137 1.4935329e-38
1.3316679 0.82389158 1.0738331 1.1615916e-38
1.3825405 0.82503766 1.0776552 9.8645568e-39
1.4178472 0.82116002 1.0698887 8.9429579e-39
1.4662026 0.81859016 1.0913281 1.7513554e-38
-2.3633721 0.8738243 1.0706044 1.0234072e-38
-2.3251541 0.87698257 1.0723474 9.9563994e-39
-2.2828317 0.87332797 1.0751393 1.0509214e-38
-2.2084441 0.88611698 1.06687 9.40395e-39
-2.1797509 0.87574905 1.0729403 1.0232989e-38
-2.136673 0.87244445 1.0829862 1.0418458e-38
1.2732491 0.87344086 1.0794109 1.5119719e-38
1.3292035 0.87827635 1.0765995 9.2199063e-39
1.3719798 0.87608045 1.0728114 8.2057558e-39
1.4121232 0.8733319 1.0767474 1.2997047e-38
1.4780657 0.88415229 1.0988501 1.5210477e-38
-2.3181047 0.91966653 1.0845772 1.0324462e-38
-2.2767773 0.91888297 1.0725803 1.0141515e-38
-2.2268503 0.93274319 1.0747029 9.9567637e-39
-2.1876855 0.93483078 1.0741502 9.7712892e-39
-2.1456399 0.92148614 1.0755471 1.0233708e-38
-2.0751061 0.94529086 1.0507481 7.8366187e-39
1.0260348 0.94267166 1.0911902 1.6966883e-38
1.0823247 0.94061577 1.0810106 1.3369808e-38
1.1505346 0.94674957 1.095276 1.1340417e-38
1.2455753 0.93051535 1.0569414 1.5395947e-38
1.2712922 0.92515206 1.0771426 1.1524804e-38
1.3283365 0.92294681 1.0724078 8.2057558e-39
1.3716819 0.92351085 1.0720303 1.2813737e-38
1.4196587 0.92354679 1.0883156 1.6315377e-38
-2.3227561 0.97246855 1.0686361 9.9560392e-39
-2.2831964 0.98237318 1.0914377 9.1273547e-39
-2.2199249 0.96728319 1.0778178 1.0601774e-38
-2.1740441 0.97490871 1.064435 1.0232628e-38
-2.1297128 0.98925018 1.0692506 1.0050038e-38
0.99916255 0.98291707 1.0569154 1.6965446e-38
1.0226166 0.98008585 1.0751626 1.6320794e-38
1.0757573 0.97971493 1.0695741 1.6226438e-38
1.1339431 0.98159277 1.0774653 1.4104487e-38
1.1874241 0.98514366 1.0831289 1.4104843e-38
1.2305274 0.97549653 1.0779364 1.3828256e-38
1.2775124 0.97812164 1.0750779 8.2983115e-39
1.3267368 0.97480476 1.0759559 1.2998128e-38
1.3694874 0.96731758 1.0762023 1.3642421e-38
1.4122257 0.97093517 1.0893542 1.732881e-38
